# .PCD v0.7 - Point Cloud Data file format
VERSION 0.7
FIELDS x y z
SIZE 4 4 4
TYPE F F F
COUNT 1 1 1
WIDTH 1381
HEIGHT 1
VIEWPOINT 0 0 0 1 0 0 0
POINTS 1381
DATA ascii
0.12345992 -0.20062463 0.86700004
0.12507708 -0.20062463 0.86700004
0.12669423 -0.20062463 0.86700004
0.12831138 -0.20062463 0.86700004
0.12992853 -0.20062463 0.86700004
0.13184914 -0.20108742 0.86900002
0.1337772 -0.20155023 0.87100005
0.13540182 -0.20155023 0.87100005
0.13734107 -0.20201303 0.87300003
0.13896942 -0.20201303 0.87300003
0.14059776 -0.20201303 0.87300003
0.1422261 -0.20201303 0.87300003
0.14385445 -0.20201303 0.87300003
0.14548279 -0.20201303 0.87300003
0.14711113 -0.20201303 0.87300003
0.14873949 -0.20201303 0.87300003
0.15122904 -0.20317003 0.87800002
0.15286671 -0.20317003 0.87800002
0.15450437 -0.20317003 0.87800002
0.15614204 -0.20317003 0.87800002
0.15777972 -0.20317003 0.87800002
0.15941739 -0.20317003 0.87800002
0.16105506 -0.20317003 0.87800002
0.16269273 -0.20317003 0.87800002
0.16433041 -0.20317003 0.87800002
0.16634615 -0.20363285 0.88000005
0.16760574 -0.20317003 0.87800002
0.16962895 -0.20363285 0.88000005
0.17127034 -0.20363285 0.88000005
0.17330474 -0.20409565 0.88200003
0.17494985 -0.20409565 0.88200003
0.17699543 -0.20455843 0.88400006
0.1786443 -0.20455843 0.88400006
0.18029316 -0.20455843 0.88400006
0.18194202 -0.20455843 0.88400006
0.18359087 -0.20455843 0.88400006
0.18523975 -0.20455843 0.88400006
0.18688861 -0.20455843 0.88400006
0.18853746 -0.20455843 0.88400006
0.19018632 -0.20455843 0.88400006
0.19183519 -0.20455843 0.88400006
0.19348405 -0.20455843 0.88400006
0.19579513 -0.20525265 0.88700002
0.19744958 -0.20525265 0.88700002
0.19910404 -0.20525265 0.88700002
0.2007585 -0.20525265 0.88700002
0.20286936 -0.20571545 0.88900006
0.20452754 -0.20571545 0.88900006
0.20618573 -0.20571545 0.88900006
0.20784393 -0.20571545 0.88900006
0.20950212 -0.20571545 0.88900006
0.2111603 -0.20571545 0.88900006
0.21281849 -0.20571545 0.88900006
0.21447667 -0.20571545 0.88900006
0.21613486 -0.20571545 0.88900006
0.21828303 -0.20617826 0.89100003
0.2206855 -0.20687246 0.89400005
0.22235301 -0.20687246 0.89400005
0.22402053 -0.20687246 0.89400005
0.22619294 -0.20733525 0.89600003
0.22786418 -0.20733525 0.89600003
0.22953542 -0.20733525 0.89600003
0.23120667 -0.20733525 0.89600003
0.23339772 -0.20779806 0.89800006
0.2350727 -0.20779806 0.89800006
0.23674768 -0.20779806 0.89800006
0.23921916 -0.20849226 0.90100002
0.24089973 -0.20849226 0.90100002
0.24258031 -0.20849226 0.90100002
0.24426088 -0.20849226 0.90100002
0.24302447 -0.17493913 0.75600004
0.24411125 -0.17470773 0.75500005
0.24486911 -0.17424493 0.75300002
0.24594657 -0.17401353 0.75200003
0.24669139 -0.17355071 0.75000006
0.24809031 -0.17355071 0.75000006
0.24882393 -0.17308791 0.74800003
0.24921556 -0.17239371 0.74500006
0.24993239 -0.17193091 0.74300003
0.25199476 -0.17239371 0.74500006
0.25338435 -0.17239371 0.74500006
0.25477394 -0.17239371 0.74500006
0.25616354 -0.17239371 0.74500006
0.25755313 -0.17239371 0.74500006
-0.20158784 -0.17031881 0.74200004
-0.19966421 -0.16985974 0.74000001
-0.19828394 -0.16985974 0.74000001
-0.19690368 -0.16985974 0.74000001
-0.1955234 -0.16985974 0.74000001
-0.19414313 -0.16985974 0.74000001
-0.19276287 -0.16985974 0.74000001
-0.1913826 -0.16985974 0.74000001
-0.19000232 -0.16985974 0.74000001
-0.18862206 -0.16985974 0.74000001
-0.18724179 -0.16985974 0.74000001
-0.18711734 -0.17100744 0.74500006
-0.18572775 -0.17100744 0.74500006
-0.18294856 -0.17100744 0.74500006
-0.18799622 -0.21691547 0.94500005
-0.18682481 -0.21760409 0.94800007
-0.086453795 -0.21002926 0.91500002
-0.084747113 -0.21002926 0.91500002
-0.083040431 -0.21002926 0.91500002
-0.081155963 -0.20957018 0.91300005
-0.079453014 -0.20957018 0.91300005
-0.077750057 -0.20957018 0.91300005
-0.076047108 -0.20957018 0.91300005
-0.074344151 -0.20957018 0.91300005
-0.072641201 -0.20957018 0.91300005
-0.070938244 -0.20957018 0.91300005
-0.069235288 -0.20957018 0.91300005
-0.067532338 -0.20957018 0.91300005
-0.065829381 -0.20957018 0.91300005
-0.064126432 -0.20957018 0.91300005
-0.062423475 -0.20957018 0.91300005
-0.060720522 -0.20957018 0.91300005
-0.058823645 -0.20888157 0.91000003
-0.057314616 -0.20957018 0.91300005
-0.055611663 -0.20957018 0.91300005
-0.053731572 -0.20888157 0.91000003
-0.052034214 -0.20888157 0.91000003
-0.050336856 -0.20888157 0.91000003
-0.048639499 -0.20888157 0.91000003
-0.046942137 -0.20888157 0.91000003
-0.045244779 -0.20888157 0.91000003
-0.043547422 -0.20888157 0.91000003
-0.041850064 -0.20888157 0.91000003
-0.040285081 -0.20957018 0.91300005
-0.038455348 -0.20888157 0.91000003
-0.036757991 -0.20888157 0.91000003
-0.035060633 -0.20888157 0.91000003
-0.033363275 -0.20888157 0.91000003
-0.031665917 -0.20888157 0.91000003
-0.02996856 -0.20888157 0.91000003
-0.028271202 -0.20888157 0.91000003
-0.026573844 -0.20888157 0.91000003
-0.024958499 -0.20957018 0.91300005
-0.023179129 -0.20888157 0.91000003
-0.021552591 -0.20957018 0.91300005
-0.019849638 -0.20957018 0.91300005
-0.018087056 -0.20888157 0.91000003
-0.016389698 -0.20888157 0.91000003
-0.01469234 -0.20888157 0.91000003
-0.012994982 -0.20888157 0.91000003
-0.011297624 -0.20888157 0.91000003
-0.0096002659 -0.20888157 0.91000003
-0.007885539 -0.20842248 0.90800005
-0.0061441767 -0.2068157 0.90100002
0.0036856672 -0.19350237 0.84300005
0.0052580549 -0.19350237 0.84300005
0.0068304427 -0.19350237 0.84300005
0.0083828941 -0.19304329 0.84100002
0.0099515514 -0.19304329 0.84100002
0.011520208 -0.19304329 0.84100002
0.013088865 -0.19304329 0.84100002
0.014692381 -0.19350237 0.84300005
0.016264768 -0.19350237 0.84300005
0.017837156 -0.19350237 0.84300005
0.019455591 -0.19396146 0.84500003
0.021031709 -0.19396146 0.84500003
0.022607828 -0.19396146 0.84500003
0.024183946 -0.19396146 0.84500003
0.025760064 -0.19396146 0.84500003
0.027336182 -0.19396146 0.84500003
0.0289123 -0.19396146 0.84500003
0.030488418 -0.19396146 0.84500003
0.032064538 -0.19396146 0.84500003
0.033760089 -0.19465007 0.84800005
0.035341803 -0.19465007 0.84800005
0.036923517 -0.19465007 0.84800005
0.03850523 -0.19465007 0.84800005
0.040086944 -0.19465007 0.84800005
0.041668657 -0.19465007 0.84800005
0.043250371 -0.19465007 0.84800005
0.044832084 -0.19465007 0.84800005
0.046413798 -0.19465007 0.84800005
0.047995511 -0.19465007 0.84800005
0.049694151 -0.19510916 0.85000002
0.051279597 -0.19510916 0.85000002
0.052989427 -0.19556823 0.85200006
0.054578602 -0.19556823 0.85200006
0.056299631 -0.19602731 0.85400003
0.057892535 -0.19602731 0.85400003
0.059485439 -0.19602731 0.85400003
0.061221387 -0.1964864 0.85600007
0.062818021 -0.1964864 0.85600007
0.064414658 -0.1964864 0.85600007
0.066011295 -0.1964864 0.85600007
0.067607932 -0.1964864 0.85600007
0.069204569 -0.1964864 0.85600007
0.070801198 -0.1964864 0.85600007
0.072397836 -0.1964864 0.85600007
0.073994473 -0.1964864 0.85600007
0.07559111 -0.1964864 0.85600007
0.077187747 -0.1964864 0.85600007
0.078784376 -0.1964864 0.85600007
0.08056882 -0.19694547 0.85800004
0.082169183 -0.19694547 0.85800004
0.083769552 -0.19694547 0.85800004
0.085369915 -0.19694547 0.85800004
0.087173007 -0.19740455 0.86000001
0.08877711 -0.19740455 0.86000001
0.090381205 -0.19740455 0.86000001
0.0919853 -0.19740455 0.86000001
0.093589395 -0.19740455 0.86000001
0.09519349 -0.19740455 0.86000001
0.097022697 -0.19786362 0.86200005
0.098630525 -0.19786362 0.86200005
0.10023835 -0.19786362 0.86200005
0.10184618 -0.19786362 0.86200005
0.10345401 -0.19786362 0.86200005
0.10506184 -0.19786362 0.86200005
0.10666966 -0.19786362 0.86200005
0.10802627 -0.19740455 0.86000001
0.10963036 -0.19740455 0.86000001
0.11149314 -0.19786362 0.86200005
0.11310097 -0.19786362 0.86200005
0.11510801 -0.19855227 0.86500007
0.11672144 -0.19855227 0.86500007
0.11833486 -0.19855227 0.86500007
0.12022562 -0.19901134 0.86700004
0.12184277 -0.19901134 0.86700004
0.12345992 -0.19901134 0.86700004
0.12507708 -0.19901134 0.86700004
0.12669423 -0.19901134 0.86700004
0.12831138 -0.19901134 0.86700004
0.12992853 -0.19901134 0.86700004
0.13184914 -0.19947042 0.86900002
0.1337772 -0.19992949 0.87100005
0.13540182 -0.19992949 0.87100005
0.13734107 -0.20038857 0.87300003
0.13896942 -0.20038857 0.87300003
0.14059776 -0.20038857 0.87300003
0.1422261 -0.20038857 0.87300003
0.14385445 -0.20038857 0.87300003
0.14548279 -0.20038857 0.87300003
0.14711113 -0.20038857 0.87300003
0.14873949 -0.20038857 0.87300003
0.15122904 -0.20153628 0.87800002
0.15286671 -0.20153628 0.87800002
0.15450437 -0.20153628 0.87800002
0.15614204 -0.20153628 0.87800002
0.15777972 -0.20153628 0.87800002
0.15941739 -0.20153628 0.87800002
0.16105506 -0.20153628 0.87800002
0.16269273 -0.20153628 0.87800002
0.16433041 -0.20153628 0.87800002
0.16596808 -0.20153628 0.87800002
0.16760574 -0.20153628 0.87800002
0.16962895 -0.20199536 0.88000005
0.17088108 -0.20153628 0.87800002
0.17291175 -0.20199536 0.88000005
0.17455316 -0.20199536 0.88000005
0.17659499 -0.20245443 0.88200003
0.17824012 -0.20245443 0.88200003
0.17988525 -0.20245443 0.88200003
0.18194202 -0.20291351 0.88400006
0.18359087 -0.20291351 0.88400006
0.18523975 -0.20291351 0.88400006
0.18688861 -0.20291351 0.88400006
0.18853746 -0.20291351 0.88400006
0.19018632 -0.20291351 0.88400006
0.19183519 -0.20291351 0.88400006
0.19348405 -0.20291351 0.88400006
0.19579513 -0.20360215 0.88700002
0.19744958 -0.20360215 0.88700002
0.19910404 -0.20360215 0.88700002
0.2007585 -0.20360215 0.88700002
0.20286936 -0.20406121 0.88900006
0.20452754 -0.20406121 0.88900006
0.20618573 -0.20406121 0.88900006
0.20784393 -0.20406121 0.88900006
0.20950212 -0.20406121 0.88900006
0.2111603 -0.20406121 0.88900006
0.21281849 -0.20406121 0.88900006
0.21447667 -0.20406121 0.88900006
0.21613486 -0.20406121 0.88900006
0.21828303 -0.2045203 0.89100003
0.21994494 -0.2045203 0.89100003
0.22235301 -0.20520893 0.89400005
0.22402053 -0.20520893 0.89400005
0.22568804 -0.20520893 0.89400005
0.22735555 -0.20520893 0.89400005
0.22953542 -0.205668 0.89600003
0.23120667 -0.205668 0.89600003
0.23287791 -0.205668 0.89600003
0.2350727 -0.20612709 0.89800006
0.23674768 -0.20612709 0.89800006
0.23842265 -0.20612709 0.89800006
0.24089973 -0.2068157 0.90100002
0.24258031 -0.2068157 0.90100002
0.24426088 -0.2068157 0.90100002
0.24302447 -0.17353238 0.75600004
0.24411125 -0.17330283 0.75500005
0.2455195 -0.17330283 0.75500005
0.24594657 -0.17261422 0.75200003
0.24603355 -0.17169605 0.74800003
0.24809031 -0.17215513 0.75000006
0.24782597 -0.17100744 0.74500006
0.24921556 -0.17100744 0.74500006
0.24993239 -0.17054835 0.74300003
0.25199476 -0.17100744 0.74500006
0.25338435 -0.17100744 0.74500006
0.25477394 -0.17100744 0.74500006
0.25616354 -0.17100744 0.74500006
0.25755313 -0.17100744 0.74500006
-0.19966421 -0.16848277 0.74000001
-0.19828394 -0.16848277 0.74000001
-0.19690368 -0.16848277 0.74000001
-0.1955234 -0.16848277 0.74000001
-0.19414313 -0.16848277 0.74000001
-0.19276287 -0.16848277 0.74000001
-0.1913826 -0.16848277 0.74000001
-0.19000232 -0.16848277 0.74000001
-0.18862206 -0.16848277 0.74000001
-0.18724179 -0.16848277 0.74000001
-0.18661502 -0.16916579 0.74300003
-0.18522915 -0.16916579 0.74300003
-0.18245742 -0.16916579 0.74300003
-0.18739943 -0.21447399 0.94200003
-0.1862336 -0.21515703 0.94500005
-0.091774009 -0.20878202 0.91700006
-0.090063594 -0.20878202 0.91700006
-0.088353187 -0.20878202 0.91700006
-0.086453795 -0.20832665 0.91500002
-0.084561877 -0.2078713 0.91300005
-0.08285892 -0.2078713 0.91300005
-0.081155963 -0.2078713 0.91300005
-0.079627059 -0.20832665 0.91500002
-0.077750057 -0.2078713 0.91300005
-0.076047108 -0.2078713 0.91300005
-0.074344151 -0.2078713 0.91300005
-0.072641201 -0.2078713 0.91300005
-0.070938244 -0.2078713 0.91300005
-0.069235288 -0.2078713 0.91300005
-0.067532338 -0.2078713 0.91300005
-0.065829381 -0.2078713 0.91300005
-0.064126432 -0.2078713 0.91300005
-0.062423475 -0.2078713 0.91300005
-0.060720522 -0.2078713 0.91300005
-0.059017569 -0.2078713 0.91300005
-0.057314616 -0.2078713 0.91300005
-0.055611663 -0.2078713 0.91300005
-0.053731572 -0.20718826 0.91000003
-0.052034214 -0.20718826 0.91000003
-0.050336856 -0.20718826 0.91000003
-0.048639499 -0.20718826 0.91000003
-0.046942137 -0.20718826 0.91000003
-0.045244779 -0.20718826 0.91000003
-0.043547422 -0.20718826 0.91000003
-0.041988034 -0.2078713 0.91300005
-0.040285081 -0.2078713 0.91300005
-0.038582128 -0.2078713 0.91300005
-0.036879174 -0.2078713 0.91300005
-0.035060633 -0.20718826 0.91000003
-0.033363275 -0.20718826 0.91000003
-0.031665917 -0.20718826 0.91000003
-0.02996856 -0.20718826 0.91000003
-0.028209068 -0.2067329 0.90800005
-0.026573844 -0.20718826 0.91000003
-0.024958499 -0.2078713 0.91300005
-0.023179129 -0.20718826 0.91000003
-0.021552591 -0.2078713 0.91300005
-0.019849638 -0.2078713 0.91300005
-0.018087056 -0.20718826 0.91000003
-0.016389698 -0.20718826 0.91000003
-0.01469234 -0.20718826 0.91000003
-0.012994982 -0.20718826 0.91000003
-0.011297624 -0.20718826 0.91000003
-0.0096002659 -0.20718826 0.91000003
-0.007885539 -0.2067329 0.90800005
-0.0061919116 -0.2067329 0.90800005
0.0021132797 -0.19193374 0.84300005
0.0036856672 -0.19193374 0.84300005
0.0052580549 -0.19193374 0.84300005
0.0068304427 -0.19193374 0.84300005
0.0084028309 -0.19193374 0.84300005
0.0099515514 -0.19147839 0.84100002
0.011547606 -0.19193374 0.84300005
0.013088865 -0.19147839 0.84100002
0.014692381 -0.19193374 0.84300005
0.016264768 -0.19193374 0.84300005
0.017837156 -0.19193374 0.84300005
0.019455591 -0.1923891 0.84500003
0.021031709 -0.1923891 0.84500003
0.022607828 -0.1923891 0.84500003
0.024183946 -0.1923891 0.84500003
0.025760064 -0.1923891 0.84500003
0.027336182 -0.1923891 0.84500003
0.0289123 -0.1923891 0.84500003
0.030488418 -0.1923891 0.84500003
0.032064538 -0.1923891 0.84500003
0.033760089 -0.19307214 0.84800005
0.035341803 -0.19307214 0.84800005
0.036923517 -0.19307214 0.84800005
0.03850523 -0.19307214 0.84800005
0.040086944 -0.19307214 0.84800005
0.041668657 -0.19307214 0.84800005
0.043250371 -0.19307214 0.84800005
0.044832084 -0.19307214 0.84800005
0.046413798 -0.19307214 0.84800005
0.047995511 -0.19307214 0.84800005
0.049694151 -0.1935275 0.85000002
0.051279597 -0.1935275 0.85000002
0.052989427 -0.19398285 0.85200006
0.054578602 -0.19398285 0.85200006
0.056299631 -0.1944382 0.85400003
0.057892535 -0.1944382 0.85400003
0.059485439 -0.1944382 0.85400003
0.061221387 -0.19489357 0.85600007
0.062818021 -0.19489357 0.85600007
0.064414658 -0.19489357 0.85600007
0.066011295 -0.19489357 0.85600007
0.067607932 -0.19489357 0.85600007
0.069204569 -0.19489357 0.85600007
0.070801198 -0.19489357 0.85600007
0.072397836 -0.19489357 0.85600007
0.073994473 -0.19489357 0.85600007
0.07559111 -0.19489357 0.85600007
0.077187747 -0.19489357 0.85600007
0.078784376 -0.19489357 0.85600007
0.08056882 -0.19534892 0.85800004
0.082169183 -0.19534892 0.85800004
0.083769552 -0.19534892 0.85800004
0.085369915 -0.19534892 0.85800004
0.086970285 -0.19534892 0.85800004
0.08877711 -0.19580428 0.86000001
0.090381205 -0.19580428 0.86000001
0.0919853 -0.19580428 0.86000001
0.093589395 -0.19580428 0.86000001
0.09519349 -0.19580428 0.86000001
0.097022697 -0.19625965 0.86200005
0.098630525 -0.19625965 0.86200005
0.10058721 -0.19694269 0.86500007
0.10220063 -0.19694269 0.86500007
0.10381406 -0.19694269 0.86500007
0.10542747 -0.19694269 0.86500007
0.1070409 -0.19694269 0.86500007
0.10827748 -0.19625965 0.86200005
0.10988531 -0.19625965 0.86200005
0.11149314 -0.19625965 0.86200005
0.11349459 -0.19694269 0.86500007
0.11510801 -0.19694269 0.86500007
0.11672144 -0.19694269 0.86500007
0.11860847 -0.19739804 0.86700004
0.12022562 -0.19739804 0.86700004
0.12184277 -0.19739804 0.86700004
0.12345992 -0.19739804 0.86700004
0.12507708 -0.19739804 0.86700004
0.12698649 -0.1978534 0.86900002
0.12831138 -0.19739804 0.86700004
0.13022825 -0.1978534 0.86900002
0.13184914 -0.1978534 0.86900002
0.1337772 -0.19830877 0.87100005
0.13540182 -0.19830877 0.87100005
0.13702643 -0.19830877 0.87100005
0.13896942 -0.19876412 0.87300003
0.14059776 -0.19876412 0.87300003
0.1422261 -0.19876412 0.87300003
0.14385445 -0.19876412 0.87300003
0.14548279 -0.19876412 0.87300003
0.14711113 -0.19876412 0.87300003
0.14873949 -0.19876412 0.87300003
0.15071231 -0.19921948 0.87500006
0.15234439 -0.19921948 0.87500006
0.15450437 -0.19990252 0.87800002
0.15614204 -0.19990252 0.87800002
0.15777972 -0.19990252 0.87800002
0.15941739 -0.19990252 0.87800002
0.16105506 -0.19990252 0.87800002
0.16269273 -0.19990252 0.87800002
0.16433041 -0.19990252 0.87800002
0.16596808 -0.19990252 0.87800002
0.16760574 -0.19990252 0.87800002
0.16924341 -0.19990252 0.87800002
0.17088108 -0.19990252 0.87800002
0.17291175 -0.20035788 0.88000005
0.17455316 -0.20035788 0.88000005
0.17659499 -0.20081323 0.88200003
0.17824012 -0.20081323 0.88200003
0.17988525 -0.20081323 0.88200003
0.18194202 -0.20126858 0.88400006
0.18359087 -0.20126858 0.88400006
0.18523975 -0.20126858 0.88400006
0.18688861 -0.20126858 0.88400006
0.18853746 -0.20126858 0.88400006
0.19018632 -0.20126858 0.88400006
0.19183519 -0.20126858 0.88400006
0.19348405 -0.20126858 0.88400006
0.19579513 -0.20195164 0.88700002
0.19744958 -0.20195164 0.88700002
0.19910404 -0.20195164 0.88700002
0.2007585 -0.20195164 0.88700002
0.20286936 -0.20240699 0.88900006
0.20452754 -0.20240699 0.88900006
0.20618573 -0.20240699 0.88900006
0.20784393 -0.20240699 0.88900006
0.20950212 -0.20240699 0.88900006
0.21163535 -0.20286235 0.89100003
0.21281849 -0.20240699 0.88900006
0.21495919 -0.20286235 0.89100003
0.2166211 -0.20286235 0.89100003
0.21828303 -0.20286235 0.89100003
0.21994494 -0.20286235 0.89100003
0.22160687 -0.20286235 0.89100003
0.22402053 -0.20354539 0.89400005
0.22568804 -0.20354539 0.89400005
0.22735555 -0.20354539 0.89400005
0.22953542 -0.20400074 0.89600003
0.23120667 -0.20400074 0.89600003
0.23287791 -0.20400074 0.89600003
0.2350727 -0.20445611 0.89800006
0.23674768 -0.20445611 0.89800006
0.23921916 -0.20513915 0.90100002
0.24089973 -0.20513915 0.90100002
0.24258031 -0.20513915 0.90100002
0.24480307 -0.20559449 0.90300006
0.24648738 -0.20559449 0.90300006
0.24270301 -0.17189795 0.75500005
0.24411125 -0.17189795 0.75500005
0.24486911 -0.1714426 0.75300002
0.24594657 -0.17121491 0.75200003
0.24603355 -0.17030419 0.74800003
0.24809031 -0.17075954 0.75000006
0.24782597 -0.16962115 0.74500006
0.24921556 -0.16962115 0.74500006
0.24993239 -0.16916579 0.74300003
0.25199476 -0.16962115 0.74500006
0.25270411 -0.16916579 0.74300003
0.25477394 -0.16962115 0.74500006
0.25547585 -0.16916579 0.74300003
-0.20104448 -0.16710578 0.74000001
-0.19966421 -0.16710578 0.74000001
-0.19828394 -0.16710578 0.74000001
-0.19690368 -0.16710578 0.74000001
-0.1955234 -0.16710578 0.74000001
-0.19414313 -0.16710578 0.74000001
-0.19250238 -0.16687997 0.73900002
-0.19112398 -0.16687997 0.73900002
-0.18974556 -0.16687997 0.73900002
-0.18862206 -0.16710578 0.74000001
-0.18724179 -0.16710578 0.74000001
-0.18799622 -0.21339861 0.94500005
-0.1862336 -0.21339861 0.94500005
-0.096905254 -0.20707569 0.91700006
-0.095194839 -0.20707569 0.91700006
-0.093484424 -0.20707569 0.91700006
-0.091774009 -0.20707569 0.91700006
-0.090063594 -0.20707569 0.91700006
-0.088160485 -0.20662405 0.91500002
-0.086453795 -0.20662405 0.91500002
-0.084561877 -0.20617241 0.91300005
-0.08285892 -0.20617241 0.91300005
-0.081333749 -0.20662405 0.91500002
-0.079627059 -0.20662405 0.91500002
-0.077750057 -0.20617241 0.91300005
-0.076047108 -0.20617241 0.91300005
-0.074344151 -0.20617241 0.91300005
-0.072641201 -0.20617241 0.91300005
-0.070938244 -0.20617241 0.91300005
-0.069235288 -0.20617241 0.91300005
-0.067532338 -0.20617241 0.91300005
-0.065829381 -0.20617241 0.91300005
-0.064126432 -0.20617241 0.91300005
-0.062423475 -0.20617241 0.91300005
-0.060720522 -0.20617241 0.91300005
-0.059017569 -0.20617241 0.91300005
-0.057314616 -0.20617241 0.91300005
-0.05542893 -0.20549496 0.91000003
-0.053731572 -0.20549496 0.91000003
-0.052034214 -0.20549496 0.91000003
-0.050336856 -0.20549496 0.91000003
-0.048639499 -0.20549496 0.91000003
-0.046942137 -0.20549496 0.91000003
-0.045244779 -0.20549496 0.91000003
-0.043547422 -0.20549496 0.91000003
-0.041850064 -0.20549496 0.91000003
-0.040285081 -0.20617241 0.91300005
-0.038582128 -0.20617241 0.91300005
-0.036879174 -0.20617241 0.91300005
-0.035176221 -0.20617241 0.91300005
-0.033473264 -0.20617241 0.91300005
-0.031665917 -0.20549496 0.91000003
-0.02996856 -0.20549496 0.91000003
-0.028271202 -0.20549496 0.91000003
-0.026573844 -0.20549496 0.91000003
-0.024958499 -0.20617241 0.91300005
-0.023179129 -0.20549496 0.91000003
-0.021552591 -0.20617241 0.91300005
-0.019849638 -0.20617241 0.91300005
-0.018087056 -0.20549496 0.91000003
-0.016389698 -0.20549496 0.91000003
-0.01469234 -0.20549496 0.91000003
-0.012994982 -0.20549496 0.91000003
-0.011297624 -0.20549496 0.91000003
-0.0096002659 -0.20549496 0.91000003
-0.007885539 -0.20504332 0.90800005
-0.0061919116 -0.20504332 0.90800005
0.0021132797 -0.19036509 0.84300005
0.0036856672 -0.19036509 0.84300005
0.0052580549 -0.19036509 0.84300005
0.0068304427 -0.19036509 0.84300005
0.0084028309 -0.19036509 0.84300005
0.0099752182 -0.19036509 0.84300005
0.011547606 -0.19036509 0.84300005
0.013119994 -0.19036509 0.84300005
0.014727238 -0.19081675 0.84500003
0.016264768 -0.19036509 0.84300005
0.017837156 -0.19036509 0.84300005
0.019455591 -0.19081675 0.84500003
0.021031709 -0.19081675 0.84500003
0.022607828 -0.19081675 0.84500003
0.024183946 -0.19081675 0.84500003
0.025760064 -0.19081675 0.84500003
0.027336182 -0.19081675 0.84500003
0.0289123 -0.19081675 0.84500003
0.030488418 -0.19081675 0.84500003
0.032064538 -0.19081675 0.84500003
0.033760089 -0.1914942 0.84800005
0.035341803 -0.1914942 0.84800005
0.036923517 -0.1914942 0.84800005
0.03850523 -0.1914942 0.84800005
0.040086944 -0.1914942 0.84800005
0.041668657 -0.1914942 0.84800005
0.043250371 -0.1914942 0.84800005
0.044832084 -0.1914942 0.84800005
0.046413798 -0.1914942 0.84800005
0.047995511 -0.1914942 0.84800005
0.049694151 -0.19194584 0.85000002
0.051279597 -0.19194584 0.85000002
0.052989427 -0.19239748 0.85200006
0.054578602 -0.19239748 0.85200006
0.056299631 -0.1928491 0.85400003
0.057892535 -0.1928491 0.85400003
0.059485439 -0.1928491 0.85400003
0.061221387 -0.19330075 0.85600007
0.062818021 -0.19330075 0.85600007
0.064414658 -0.19330075 0.85600007
0.066011295 -0.19330075 0.85600007
0.067607932 -0.19330075 0.85600007
0.069204569 -0.19330075 0.85600007
0.070801198 -0.19330075 0.85600007
0.072397836 -0.19330075 0.85600007
0.073994473 -0.19330075 0.85600007
0.07559111 -0.19330075 0.85600007
0.077187747 -0.19330075 0.85600007
0.07896845 -0.19375238 0.85800004
0.08056882 -0.19375238 0.85800004
0.082169183 -0.19375238 0.85800004
0.083769552 -0.19375238 0.85800004
0.085369915 -0.19375238 0.85800004
0.087173007 -0.19420402 0.86000001
0.08877711 -0.19420402 0.86000001
0.090381205 -0.19420402 0.86000001
0.0919853 -0.19420402 0.86000001
0.093589395 -0.19420402 0.86000001
0.095414869 -0.19465566 0.86200005
0.097022697 -0.19465566 0.86200005
0.098973788 -0.19533312 0.86500007
0.10058721 -0.19533312 0.86500007
0.10220063 -0.19533312 0.86500007
0.10381406 -0.19533312 0.86500007
0.10542747 -0.19533312 0.86500007
0.1070409 -0.19533312 0.86500007
0.10865432 -0.19533312 0.86500007
0.10988531 -0.19465566 0.86200005
0.11149314 -0.19465566 0.86200005
0.11349459 -0.19533312 0.86500007
0.11510801 -0.19533312 0.86500007
0.11699131 -0.19578475 0.86700004
0.11860847 -0.19578475 0.86700004
0.12022562 -0.19578475 0.86700004
0.12184277 -0.19578475 0.86700004
0.12345992 -0.19578475 0.86700004
0.12507708 -0.19578475 0.86700004
0.12698649 -0.19623639 0.86900002
0.12860738 -0.19623639 0.86900002
0.13022825 -0.19623639 0.86900002
0.13184914 -0.19623639 0.86900002
0.1337772 -0.19668803 0.87100005
0.13540182 -0.19668803 0.87100005
0.13734107 -0.19713965 0.87300003
0.13896942 -0.19713965 0.87300003
0.14059776 -0.19713965 0.87300003
0.1422261 -0.19713965 0.87300003
0.14385445 -0.19713965 0.87300003
0.14548279 -0.19713965 0.87300003
0.14711113 -0.19713965 0.87300003
0.14873949 -0.19713965 0.87300003
0.15071231 -0.1975913 0.87500006
0.15234439 -0.1975913 0.87500006
0.15450437 -0.19826876 0.87800002
0.15614204 -0.19826876 0.87800002
0.15777972 -0.19826876 0.87800002
0.15941739 -0.19826876 0.87800002
0.16105506 -0.19826876 0.87800002
0.16269273 -0.19826876 0.87800002
0.16433041 -0.19826876 0.87800002
0.16596808 -0.19826876 0.87800002
0.16760574 -0.19826876 0.87800002
0.16924341 -0.19826876 0.87800002
0.17088108 -0.19826876 0.87800002
0.17291175 -0.1987204 0.88000005
0.17455316 -0.1987204 0.88000005
0.17659499 -0.19917203 0.88200003
0.17824012 -0.19917203 0.88200003
0.17988525 -0.19917203 0.88200003
0.18194202 -0.19962366 0.88400006
0.18359087 -0.19962366 0.88400006
0.18523975 -0.19962366 0.88400006
0.18688861 -0.19962366 0.88400006
0.18853746 -0.19962366 0.88400006
0.19018632 -0.19962366 0.88400006
0.19183519 -0.19962366 0.88400006
0.19414067 -0.20030113 0.88700002
0.19579513 -0.20030113 0.88700002
0.19744958 -0.20030113 0.88700002
0.19910404 -0.20030113 0.88700002
0.2007585 -0.20030113 0.88700002
0.20286936 -0.20075276 0.88900006
0.20452754 -0.20075276 0.88900006
0.20618573 -0.20075276 0.88900006
0.20784393 -0.20075276 0.88900006
0.20950212 -0.20075276 0.88900006
0.2111603 -0.20075276 0.88900006
0.21281849 -0.20075276 0.88900006
0.21495919 -0.2012044 0.89100003
0.2166211 -0.2012044 0.89100003
0.21828303 -0.2012044 0.89100003
0.21994494 -0.2012044 0.89100003
0.22160687 -0.2012044 0.89100003
0.22402053 -0.20188186 0.89400005
0.22568804 -0.20188186 0.89400005
0.22735555 -0.20188186 0.89400005
0.22953542 -0.2023335 0.89600003
0.23120667 -0.2023335 0.89600003
0.23287791 -0.2023335 0.89600003
0.23454915 -0.2023335 0.89600003
0.23674768 -0.20278513 0.89800006
0.23842265 -0.20278513 0.89800006
0.24089973 -0.20346259 0.90100002
0.24258031 -0.20346259 0.90100002
0.24480307 -0.20391421 0.90300006
0.24648738 -0.20391421 0.90300006
0.2256356 -0.18539709 0.82100004
0.24302447 -0.17071889 0.75600004
0.24411125 -0.17049307 0.75500005
0.24486911 -0.17004144 0.75300002
0.24594657 -0.16981561 0.75200003
0.24669139 -0.16936396 0.75000006
0.24809031 -0.16936396 0.75000006
0.24882393 -0.16891234 0.74800003
0.24921556 -0.16823488 0.74500006
0.24993239 -0.16778325 0.74300003
0.25131825 -0.16778325 0.74300003
0.25270411 -0.16778325 0.74300003
0.25477394 -0.16823488 0.74500006
0.25547585 -0.16778325 0.74300003
-0.20104448 -0.16572881 0.74000001
-0.19966421 -0.16572881 0.74000001
-0.19828394 -0.16572881 0.74000001
-0.19690368 -0.16572881 0.74000001
-0.1955234 -0.16572881 0.74000001
-0.19388078 -0.16550484 0.73900002
-0.19250238 -0.16550484 0.73900002
-0.19112398 -0.16550484 0.73900002
-0.18974556 -0.16550484 0.73900002
-0.18862206 -0.16572881 0.74000001
-0.18724179 -0.16572881 0.74000001
-0.18975887 -0.21164016 0.94500005
-0.18739943 -0.2109683 0.94200003
-0.18564239 -0.2109683 0.94200003
-0.10032608 -0.20536935 0.91700006
-0.098615669 -0.20536935 0.91700006
-0.096905254 -0.20536935 0.91700006
-0.095194839 -0.20536935 0.91700006
-0.093484424 -0.20536935 0.91700006
-0.091774009 -0.20536935 0.91700006
-0.089867167 -0.20492144 0.91500002
-0.088160485 -0.20492144 0.91500002
-0.086453795 -0.20492144 0.91500002
-0.084747113 -0.20492144 0.91500002
-0.083040431 -0.20492144 0.91500002
-0.081333749 -0.20492144 0.91500002
-0.079627059 -0.20492144 0.91500002
-0.077750057 -0.20447353 0.91300005
-0.076047108 -0.20447353 0.91300005
-0.074344151 -0.20447353 0.91300005
-0.072641201 -0.20447353 0.91300005
-0.070938244 -0.20447353 0.91300005
-0.069235288 -0.20447353 0.91300005
-0.06731043 -0.20380165 0.91000003
-0.065613076 -0.20380165 0.91000003
-0.063915715 -0.20380165 0.91000003
-0.062218361 -0.20380165 0.91000003
-0.060720522 -0.20447353 0.91300005
-0.058823645 -0.20380165 0.91000003
-0.057314616 -0.20447353 0.91300005
-0.05542893 -0.20380165 0.91000003
-0.053731572 -0.20380165 0.91000003
-0.052034214 -0.20380165 0.91000003
-0.050336856 -0.20380165 0.91000003
-0.048639499 -0.20380165 0.91000003
-0.046942137 -0.20380165 0.91000003
-0.045244779 -0.20380165 0.91000003
-0.043547422 -0.20380165 0.91000003
-0.041850064 -0.20380165 0.91000003
-0.040285081 -0.20447353 0.91300005
-0.038582128 -0.20447353 0.91300005
-0.036879174 -0.20447353 0.91300005
-0.035176221 -0.20447353 0.91300005
-0.033473264 -0.20447353 0.91300005
-0.031665917 -0.20380165 0.91000003
-0.02996856 -0.20380165 0.91000003
-0.028271202 -0.20380165 0.91000003
-0.026573844 -0.20380165 0.91000003
-0.024958499 -0.20447353 0.91300005
-0.023255544 -0.20447353 0.91300005
-0.021552591 -0.20447353 0.91300005
-0.019893119 -0.20492144 0.91500002
-0.018146684 -0.20447353 0.91300005
-0.016443729 -0.20447353 0.91300005
-0.01469234 -0.20380165 0.91000003
-0.012994982 -0.20380165 0.91000003
-0.011297624 -0.20380165 0.91000003
-0.0096002659 -0.20380165 0.91000003
-0.007885539 -0.20335373 0.90800005
-0.0061714537 -0.20268185 0.90500003
0.0021182934 -0.18924439 0.84500003
0.0036856672 -0.18879646 0.84300005
0.0052580549 -0.18879646 0.84300005
0.0068466477 -0.18924439 0.84500003
0.0084227649 -0.18924439 0.84500003
0.0099988831 -0.18924439 0.84500003
0.011547606 -0.18879646 0.84300005
0.013119994 -0.18879646 0.84300005
0.014727238 -0.18924439 0.84500003
0.016303355 -0.18924439 0.84500003
0.017879473 -0.18924439 0.84500003
0.019455591 -0.18924439 0.84500003
0.021031709 -0.18924439 0.84500003
0.022607828 -0.18924439 0.84500003
0.024183946 -0.18924439 0.84500003
0.025760064 -0.18924439 0.84500003
0.027336182 -0.18924439 0.84500003
0.0289123 -0.18924439 0.84500003
0.030488418 -0.18924439 0.84500003
0.032064538 -0.18924439 0.84500003
0.033760089 -0.18991625 0.84800005
0.035341803 -0.18991625 0.84800005
0.036923517 -0.18991625 0.84800005
0.03850523 -0.18991625 0.84800005
0.040086944 -0.18991625 0.84800005
0.041668657 -0.18991625 0.84800005
0.043250371 -0.18991625 0.84800005
0.044832084 -0.18991625 0.84800005
0.046413798 -0.18991625 0.84800005
0.048108708 -0.19036418 0.85000002
0.049694151 -0.19036418 0.85000002
0.051279597 -0.19036418 0.85000002
0.052989427 -0.1908121 0.85200006
0.054578602 -0.1908121 0.85200006
0.056167778 -0.1908121 0.85200006
0.057892535 -0.19126 0.85400003
0.059485439 -0.19126 0.85400003
0.061221387 -0.19170792 0.85600007
0.062818021 -0.19170792 0.85600007
0.064414658 -0.19170792 0.85600007
0.066011295 -0.19170792 0.85600007
0.067607932 -0.19170792 0.85600007
0.069204569 -0.19170792 0.85600007
0.070801198 -0.19170792 0.85600007
0.072397836 -0.19170792 0.85600007
0.074167356 -0.19215584 0.85800004
0.075767718 -0.19215584 0.85800004
0.077368088 -0.19215584 0.85800004
0.07896845 -0.19215584 0.85800004
0.08056882 -0.19215584 0.85800004
0.082169183 -0.19215584 0.85800004
0.083964817 -0.19260375 0.86000001
0.085369915 -0.19215584 0.85800004
0.086970285 -0.19215584 0.85800004
0.08877711 -0.19260375 0.86000001
0.090381205 -0.19260375 0.86000001
0.0919853 -0.19260375 0.86000001
0.093589395 -0.19260375 0.86000001
0.09519349 -0.19260375 0.86000001
0.097022697 -0.19305167 0.86200005
0.098630525 -0.19305167 0.86200005
0.10058721 -0.19372354 0.86500007
0.10220063 -0.19372354 0.86500007
0.10381406 -0.19372354 0.86500007
0.10542747 -0.19372354 0.86500007
0.1070409 -0.19372354 0.86500007
0.10865432 -0.19372354 0.86500007
0.10988531 -0.19305167 0.86200005
0.11188117 -0.19372354 0.86500007
0.11349459 -0.19372354 0.86500007
0.11510801 -0.19372354 0.86500007
0.11672144 -0.19372354 0.86500007
0.11860847 -0.19417146 0.86700004
0.12022562 -0.19417146 0.86700004
0.12184277 -0.19417146 0.86700004
0.12374472 -0.19461937 0.86900002
0.1253656 -0.19461937 0.86900002
0.12698649 -0.19461937 0.86900002
0.12860738 -0.19461937 0.86900002
0.13022825 -0.19461937 0.86900002
0.13184914 -0.19461937 0.86900002
0.1337772 -0.19506729 0.87100005
0.13540182 -0.19506729 0.87100005
0.13702643 -0.19506729 0.87100005
0.13896942 -0.1955152 0.87300003
0.14059776 -0.1955152 0.87300003
0.1422261 -0.1955152 0.87300003
0.14385445 -0.1955152 0.87300003
0.14548279 -0.1955152 0.87300003
0.14711113 -0.1955152 0.87300003
0.14873949 -0.1955152 0.87300003
0.15122904 -0.19663499 0.87800002
0.15234439 -0.19596313 0.87500006
0.15450437 -0.19663499 0.87800002
0.15614204 -0.19663499 0.87800002
0.15777972 -0.19663499 0.87800002
0.15941739 -0.19663499 0.87800002
0.16105506 -0.19663499 0.87800002
0.16269273 -0.19663499 0.87800002
0.16433041 -0.19663499 0.87800002
0.16596808 -0.19663499 0.87800002
0.16760574 -0.19663499 0.87800002
0.16924341 -0.19663499 0.87800002
0.17127034 -0.19708292 0.88000005
0.17291175 -0.19708292 0.88000005
0.17455316 -0.19708292 0.88000005
0.17699543 -0.19797873 0.88400006
0.17824012 -0.19753082 0.88200003
0.18029316 -0.19797873 0.88400006
0.18194202 -0.19797873 0.88400006
0.18359087 -0.19797873 0.88400006
0.18523975 -0.19797873 0.88400006
0.18688861 -0.19797873 0.88400006
0.18853746 -0.19797873 0.88400006
0.19018632 -0.19797873 0.88400006
0.19248621 -0.19865063 0.88700002
0.19348405 -0.19797873 0.88400006
0.19579513 -0.19865063 0.88700002
0.19744958 -0.19865063 0.88700002
0.19910404 -0.19865063 0.88700002
0.2007585 -0.19865063 0.88700002
0.20241296 -0.19865063 0.88700002
0.20452754 -0.19909853 0.88900006
0.20618573 -0.19909853 0.88900006
0.20784393 -0.19909853 0.88900006
0.20997342 -0.19954646 0.89100003
0.2111603 -0.19909853 0.88900006
0.21281849 -0.19909853 0.88900006
0.21495919 -0.19954646 0.89100003
0.2166211 -0.19954646 0.89100003
0.21828303 -0.19954646 0.89100003
0.21994494 -0.19954646 0.89100003
0.22160687 -0.19954646 0.89100003
0.22402053 -0.20021832 0.89400005
0.22568804 -0.20021832 0.89400005
0.22735555 -0.20021832 0.89400005
0.22902307 -0.20021832 0.89400005
0.23069058 -0.20021832 0.89400005
0.23287791 -0.20066623 0.89600003
0.23454915 -0.20066623 0.89600003
0.2362204 -0.20066623 0.89600003
0.23842265 -0.20111416 0.89800006
0.24009763 -0.20111416 0.89800006
0.24258031 -0.20178603 0.90100002
0.24480307 -0.20223394 0.90300006
0.24648738 -0.20223394 0.90300006
0.2256356 -0.18386939 0.82100004
0.24443458 -0.16931213 0.75600004
0.2455195 -0.16908818 0.75500005
0.24529247 -0.16796839 0.75000006
0.24734923 -0.16841631 0.75200003
0.24809031 -0.16796839 0.75000006
0.24782597 -0.1668486 0.74500006
0.24921556 -0.1668486 0.74500006
0.24993239 -0.16640069 0.74300003
0.25131825 -0.16640069 0.74300003
0.25270411 -0.16640069 0.74300003
0.25477394 -0.1668486 0.74500006
0.25547585 -0.16640069 0.74300003
-0.19966421 -0.16435184 0.74000001
-0.19828394 -0.16435184 0.74000001
-0.19690368 -0.16435184 0.74000001
-0.1955234 -0.16435184 0.74000001
-0.19414313 -0.16435184 0.74000001
-0.19250238 -0.16412973 0.73900002
-0.19112398 -0.16412973 0.73900002
-0.18974556 -0.16412973 0.73900002
-0.18862206 -0.16435184 0.74000001
-0.18975887 -0.20988174 0.94500005
-0.18739943 -0.20921545 0.94200003
-0.18564239 -0.20921545 0.94200003
-0.10181396 -0.20321882 0.91500002
-0.10032608 -0.20366302 0.91700006
-0.098615669 -0.20366302 0.91700006
-0.096905254 -0.20366302 0.91700006
-0.095194839 -0.20366302 0.91700006
-0.093484424 -0.20366302 0.91700006
-0.091774009 -0.20366302 0.91700006
-0.089867167 -0.20321882 0.91500002
-0.088160485 -0.20321882 0.91500002
-0.086453795 -0.20321882 0.91500002
-0.084747113 -0.20321882 0.91500002
-0.083040431 -0.20321882 0.91500002
-0.081333749 -0.20321882 0.91500002
-0.079627059 -0.20321882 0.91500002
-0.077750057 -0.20277464 0.91300005
-0.076047108 -0.20277464 0.91300005
-0.074344151 -0.20277464 0.91300005
-0.072641201 -0.20277464 0.91300005
-0.070938244 -0.20277464 0.91300005
-0.069007792 -0.20210835 0.91000003
-0.06731043 -0.20210835 0.91000003
-0.065613076 -0.20210835 0.91000003
-0.063915715 -0.20210835 0.91000003
-0.062218361 -0.20210835 0.91000003
-0.060720522 -0.20277464 0.91300005
-0.058823645 -0.20210835 0.91000003
-0.057314616 -0.20277464 0.91300005
-0.05542893 -0.20210835 0.91000003
-0.053731572 -0.20210835 0.91000003
-0.052034214 -0.20210835 0.91000003
-0.050336856 -0.20210835 0.91000003
-0.048639499 -0.20210835 0.91000003
-0.046942137 -0.20210835 0.91000003
-0.045244779 -0.20210835 0.91000003
-0.043547422 -0.20210835 0.91000003
-0.041850064 -0.20210835 0.91000003
-0.040285081 -0.20277464 0.91300005
-0.038582128 -0.20277464 0.91300005
-0.036879174 -0.20277464 0.91300005
-0.035176221 -0.20277464 0.91300005
-0.033473264 -0.20277464 0.91300005
-0.031665917 -0.20210835 0.91000003
-0.02996856 -0.20210835 0.91000003
-0.028271202 -0.20210835 0.91000003
-0.026573844 -0.20210835 0.91000003
-0.024958499 -0.20277464 0.91300005
-0.023255544 -0.20277464 0.91300005
-0.021599803 -0.20321882 0.91500002
-0.019893119 -0.20321882 0.91500002
-0.018146684 -0.20277464 0.91300005
-0.016443729 -0.20277464 0.91300005
-0.01469234 -0.20210835 0.91000003
-0.012994982 -0.20210835 0.91000003
-0.011297624 -0.20210835 0.91000003
-0.0096002659 -0.20210835 0.91000003
-0.0079029081 -0.20210835 0.91000003
-0.0061714537 -0.20099786 0.90500003
0.00053960888 -0.18678364 0.84100002
0.0021132797 -0.18722783 0.84300005
0.0036856672 -0.18722783 0.84300005
0.0052580549 -0.18722783 0.84300005
0.0068466477 -0.18767203 0.84500003
0.0084227649 -0.18767203 0.84500003
0.0099988831 -0.18767203 0.84500003
0.011575001 -0.18767203 0.84500003
0.013119994 -0.18722783 0.84300005
0.014727238 -0.18767203 0.84500003
0.016303355 -0.18767203 0.84500003
0.017879473 -0.18767203 0.84500003
0.019455591 -0.18767203 0.84500003
0.021031709 -0.18767203 0.84500003
0.022607828 -0.18767203 0.84500003
0.024183946 -0.18767203 0.84500003
0.025760064 -0.18767203 0.84500003
0.027336182 -0.18767203 0.84500003
0.0289123 -0.18767203 0.84500003
0.030488418 -0.18767203 0.84500003
0.032064538 -0.18767203 0.84500003
0.033760089 -0.18833832 0.84800005
0.035341803 -0.18833832 0.84800005
0.036923517 -0.18833832 0.84800005
0.03850523 -0.18833832 0.84800005
0.040181488 -0.18878253 0.85000002
0.04176693 -0.18878253 0.85000002
0.043352377 -0.18878253 0.85000002
0.044937819 -0.18878253 0.85000002
0.046523266 -0.18878253 0.85000002
0.048108708 -0.18878253 0.85000002
0.04981108 -0.18922672 0.85200006
0.051279597 -0.18878253 0.85000002
0.052989427 -0.18922672 0.85200006
0.054578602 -0.18922672 0.85200006
0.056299631 -0.18967089 0.85400003
0.057892535 -0.18967089 0.85400003
0.059485439 -0.18967089 0.85400003
0.061221387 -0.19011509 0.85600007
0.062818021 -0.19011509 0.85600007
0.064414658 -0.19011509 0.85600007
0.066011295 -0.19011509 0.85600007
0.067607932 -0.19011509 0.85600007
0.069204569 -0.19011509 0.85600007
0.070801198 -0.19011509 0.85600007
0.072397836 -0.19011509 0.85600007
0.074167356 -0.19055928 0.85800004
0.075767718 -0.19055928 0.85800004
0.077368088 -0.19055928 0.85800004
0.07896845 -0.19055928 0.85800004
0.08056882 -0.19055928 0.85800004
0.082169183 -0.19055928 0.85800004
0.083769552 -0.19055928 0.85800004
0.085369915 -0.19055928 0.85800004
0.087173007 -0.19100349 0.86000001
0.08877711 -0.19100349 0.86000001
0.090381205 -0.19100349 0.86000001
0.0919853 -0.19100349 0.86000001
0.093589395 -0.19100349 0.86000001
0.095414869 -0.19144768 0.86200005
0.097022697 -0.19144768 0.86200005
0.098973788 -0.19211398 0.86500007
0.10058721 -0.19211398 0.86500007
0.10220063 -0.19211398 0.86500007
0.10381406 -0.19211398 0.86500007
0.10542747 -0.19211398 0.86500007
0.1070409 -0.19211398 0.86500007
0.10865432 -0.19211398 0.86500007
0.11026774 -0.19211398 0.86500007
0.11188117 -0.19211398 0.86500007
0.11349459 -0.19211398 0.86500007
0.11510801 -0.19211398 0.86500007
0.11699131 -0.19255817 0.86700004
0.11860847 -0.19255817 0.86700004
0.12022562 -0.19255817 0.86700004
0.12184277 -0.19255817 0.86700004
0.12374472 -0.19300236 0.86900002
0.1253656 -0.19300236 0.86900002
0.12698649 -0.19300236 0.86900002
0.12860738 -0.19300236 0.86900002
0.13022825 -0.19300236 0.86900002
0.13215259 -0.19344656 0.87100005
0.1337772 -0.19344656 0.87100005
0.13540182 -0.19344656 0.87100005
0.13734107 -0.19389075 0.87300003
0.13896942 -0.19389075 0.87300003
0.14059776 -0.19389075 0.87300003
0.1422261 -0.19389075 0.87300003
0.14385445 -0.19389075 0.87300003
0.14548279 -0.19389075 0.87300003
0.14711113 -0.19389075 0.87300003
0.14873949 -0.19389075 0.87300003
0.15122904 -0.19500123 0.87800002
0.15286671 -0.19500123 0.87800002
0.15450437 -0.19500123 0.87800002
0.15614204 -0.19500123 0.87800002
0.15777972 -0.19500123 0.87800002
0.15941739 -0.19500123 0.87800002
0.16105506 -0.19500123 0.87800002
0.16269273 -0.19500123 0.87800002
0.16433041 -0.19500123 0.87800002
0.16596808 -0.19500123 0.87800002
0.16760574 -0.19500123 0.87800002
0.16962895 -0.19544543 0.88000005
0.17127034 -0.19544543 0.88000005
0.17291175 -0.19544543 0.88000005
0.17455316 -0.19544543 0.88000005
0.17659499 -0.19588962 0.88200003
0.1786443 -0.19633381 0.88400006
0.17988525 -0.19588962 0.88200003
0.18194202 -0.19633381 0.88400006
0.18359087 -0.19633381 0.88400006
0.18523975 -0.19633381 0.88400006
0.18688861 -0.19633381 0.88400006
0.18853746 -0.19633381 0.88400006
0.19018632 -0.19633381 0.88400006
0.19248621 -0.19700012 0.88700002
0.19414067 -0.19700012 0.88700002
0.19579513 -0.19700012 0.88700002
0.19744958 -0.19700012 0.88700002
0.19910404 -0.19700012 0.88700002
0.2007585 -0.19700012 0.88700002
0.20286936 -0.1974443 0.88900006
0.20452754 -0.1974443 0.88900006
0.20618573 -0.1974443 0.88900006
0.20784393 -0.1974443 0.88900006
0.20997342 -0.19788851 0.89100003
0.2111603 -0.1974443 0.88900006
0.21281849 -0.1974443 0.88900006
0.21447667 -0.1974443 0.88900006
0.21613486 -0.1974443 0.88900006
0.21828303 -0.19788851 0.89100003
0.21994494 -0.19788851 0.89100003
0.22160687 -0.19788851 0.89100003
0.22326878 -0.19788851 0.89100003
0.22568804 -0.19855478 0.89400005
0.22735555 -0.19855478 0.89400005
0.22902307 -0.19855478 0.89400005
0.23069058 -0.19855478 0.89400005
0.2323581 -0.19855478 0.89400005
0.23402561 -0.19855478 0.89400005
0.2362204 -0.19899897 0.89600003
0.23789164 -0.19899897 0.89600003
0.24009763 -0.19944318 0.89800006
0.24177261 -0.19944318 0.89800006
0.2220307 -0.18189751 0.81900007
0.22355832 -0.18189751 0.81900007
0.2256356 -0.18234169 0.82100004
0.22716697 -0.18234169 0.82100004
0.24302447 -0.16790539 0.75600004
0.24411125 -0.16768329 0.75500005
0.2455195 -0.16768329 0.75500005
0.24529247 -0.16657281 0.75000006
0.24603355 -0.16612862 0.74800003
0.24709794 -0.16590652 0.74700004
0.24782597 -0.16546233 0.74500006
0.24921556 -0.16546233 0.74500006
0.24993239 -0.16501813 0.74300003
0.25131825 -0.16501813 0.74300003
0.25270411 -0.16501813 0.74300003
0.25477394 -0.16546233 0.74500006
-0.19966421 -0.16297486 0.74000001
-0.19828394 -0.16297486 0.74000001
-0.19690368 -0.16297486 0.74000001
-0.1955234 -0.16297486 0.74000001
-0.19414313 -0.16297486 0.74000001
-0.19250238 -0.16275463 0.73900002
-0.19112398 -0.16275463 0.73900002
-0.18923205 -0.16231416 0.73700005
-0.18836716 -0.16275463 0.73900002
-0.19430682 -0.20922449 0.95000005
-0.19253485 -0.20922449 0.95000005
-0.19036128 -0.20878401 0.94800007
-0.18799622 -0.20812331 0.94500005
-0.18682481 -0.20878401 0.94800007
-0.12427188 -0.20195669 0.91700006
-0.12256147 -0.20195669 0.91700006
-0.12085106 -0.20195669 0.91700006
-0.11953041 -0.20261741 0.92000002
-0.1178144 -0.20261741 0.92000002
-0.11571982 -0.20195669 0.91700006
-0.1140094 -0.20195669 0.91700006
-0.11205406 -0.20151621 0.91500002
-0.11010618 -0.20107575 0.91300005
-0.10840322 -0.20107575 0.91300005
-0.106934 -0.20151621 0.91500002
-0.10522732 -0.20151621 0.91500002
-0.10352064 -0.20151621 0.91500002
-0.10181396 -0.20151621 0.91500002
-0.10032608 -0.20195669 0.91700006
-0.098615669 -0.20195669 0.91700006
-0.096905254 -0.20195669 0.91700006
-0.094987221 -0.20151621 0.91500002
-0.093280531 -0.20151621 0.91500002
-0.091573849 -0.20151621 0.91500002
-0.089867167 -0.20151621 0.91500002
-0.088160485 -0.20151621 0.91500002
-0.086453795 -0.20151621 0.91500002
-0.084747113 -0.20151621 0.91500002
-0.083040431 -0.20151621 0.91500002
-0.081333749 -0.20151621 0.91500002
-0.079627059 -0.20151621 0.91500002
-0.077920377 -0.20151621 0.91500002
-0.076047108 -0.20107575 0.91300005
-0.070938244 -0.20107575 0.91300005
-0.069007792 -0.20041505 0.91000003
-0.06731043 -0.20041505 0.91000003
-0.065613076 -0.20041505 0.91000003
-0.063915715 -0.20041505 0.91000003
-0.062218361 -0.20041505 0.91000003
-0.060521003 -0.20041505 0.91000003
-0.058823645 -0.20041505 0.91000003
-0.057126287 -0.20041505 0.91000003
-0.055307105 -0.19997457 0.90800005
-0.053613476 -0.19997457 0.90800005
-0.051919851 -0.19997457 0.90800005
-0.050336856 -0.20041505 0.91000003
-0.048532598 -0.19997457 0.90800005
-0.046942137 -0.20041505 0.91000003
-0.04514534 -0.19997457 0.90800005
-0.043547422 -0.20041505 0.91000003
-0.041850064 -0.20041505 0.91000003
-0.040285081 -0.20107575 0.91300005
-0.038582128 -0.20107575 0.91300005
-0.036879174 -0.20107575 0.91300005
-0.035176221 -0.20107575 0.91300005
-0.033473264 -0.20107575 0.91300005
-0.031665917 -0.20041505 0.91000003
-0.02996856 -0.20041505 0.91000003
-0.028271202 -0.20041505 0.91000003
-0.026573844 -0.20041505 0.91000003
-0.024958499 -0.20107575 0.91300005
-0.023255544 -0.20107575 0.91300005
-0.021552591 -0.20107575 0.91300005
-0.019849638 -0.20107575 0.91300005
-0.018146684 -0.20107575 0.91300005
-0.016389698 -0.20041505 0.91000003
-0.01469234 -0.20041505 0.91000003
-0.012994982 -0.20041505 0.91000003
-0.011297624 -0.20041505 0.91000003
-0.0096002659 -0.20041505 0.91000003
-0.007885539 -0.19997457 0.90800005
-0.0061714537 -0.19931385 0.90500003
0.0021182934 -0.18609968 0.84500003
0.0036944114 -0.18609968 0.84500003
0.0052580549 -0.1856592 0.84300005
0.0068466477 -0.18609968 0.84500003
0.0084227649 -0.18609968 0.84500003
0.0099988831 -0.18609968 0.84500003
0.011575001 -0.18609968 0.84500003
0.013151119 -0.18609968 0.84500003
0.014727238 -0.18609968 0.84500003
0.016303355 -0.18609968 0.84500003
0.017879473 -0.18609968 0.84500003
0.019455591 -0.18609968 0.84500003
0.021031709 -0.18609968 0.84500003
0.022607828 -0.18609968 0.84500003
0.024183946 -0.18609968 0.84500003
0.025760064 -0.18609968 0.84500003
0.027336182 -0.18609968 0.84500003
0.0289123 -0.18609968 0.84500003
0.030488418 -0.18609968 0.84500003
0.032178376 -0.18676038 0.84800005
0.033760089 -0.18676038 0.84800005
0.035341803 -0.18676038 0.84800005
0.036923517 -0.18676038 0.84800005
0.038596042 -0.18720086 0.85000002
0.040181488 -0.18720086 0.85000002
0.04176693 -0.18720086 0.85000002
0.043352377 -0.18720086 0.85000002
0.044937819 -0.18720086 0.85000002
0.046523266 -0.18720086 0.85000002
0.048108708 -0.18720086 0.85000002
0.049694151 -0.18720086 0.85000002
0.051279597 -0.18720086 0.85000002
0.052989427 -0.18764132 0.85200006
0.054578602 -0.18764132 0.85200006
0.056167778 -0.18764132 0.85200006
0.057892535 -0.1880818 0.85400003
0.059485439 -0.1880818 0.85400003
0.061221387 -0.18852228 0.85600007
0.062818021 -0.18852228 0.85600007
0.064414658 -0.18852228 0.85600007
0.066011295 -0.18852228 0.85600007
0.067607932 -0.18852228 0.85600007
0.069366261 -0.18896274 0.85800004
0.070966624 -0.18896274 0.85800004
0.072566994 -0.18896274 0.85800004
0.074167356 -0.18896274 0.85800004
0.075767718 -0.18896274 0.85800004
0.077368088 -0.18896274 0.85800004
0.07896845 -0.18896274 0.85800004
0.08056882 -0.18896274 0.85800004
0.082169183 -0.18896274 0.85800004
0.083964817 -0.18940322 0.86000001
0.085369915 -0.18896274 0.85800004
0.087173007 -0.18940322 0.86000001
0.08877711 -0.18940322 0.86000001
0.090381205 -0.18940322 0.86000001
0.092199221 -0.18984368 0.86200005
0.093589395 -0.18940322 0.86000001
0.095414869 -0.18984368 0.86200005
0.097360365 -0.1905044 0.86500007
0.098973788 -0.1905044 0.86500007
0.10058721 -0.1905044 0.86500007
0.10220063 -0.1905044 0.86500007
0.10381406 -0.1905044 0.86500007
0.10542747 -0.1905044 0.86500007
0.1070409 -0.1905044 0.86500007
0.10865432 -0.1905044 0.86500007
0.10988531 -0.18984368 0.86200005
0.11188117 -0.1905044 0.86500007
0.11349459 -0.1905044 0.86500007
0.11510801 -0.1905044 0.86500007
0.11699131 -0.19094488 0.86700004
0.11860847 -0.19094488 0.86700004
0.12022562 -0.19094488 0.86700004
0.12184277 -0.19094488 0.86700004
0.12374472 -0.19138534 0.86900002
0.12565413 -0.19182582 0.87100005
0.12727875 -0.19182582 0.87100005
0.12890336 -0.19182582 0.87100005
0.13022825 -0.19138534 0.86900002
0.13215259 -0.19182582 0.87100005
0.1337772 -0.19182582 0.87100005
